ply
format ascii 1.0
comment PCL generated
element vertex 1322
property float x
property float y
property float z
property uchar red
property uchar green
property uchar blue
element face 0
element camera 0
property float view_px
property float view_py
property float view_pz
property float x_axisx
property float x_axisy
property float x_axisz
property float y_axisx
property float y_axisy
property float y_axisz
property float z_axisx
property float z_axisy
property float z_axisz
property float focal
property float scalex
property float scaley
property float centerx
property float centery
property int viewportx
property int viewporty
property float k1
property float k2
end_header
1.7007451 -0.85169518 2.115 0 255 0
1.7069777 -0.85733294 2.1290002 0 255 0
1.7107457 -0.86176258 2.1400001 0 255 0
1.716853 -0.86740023 2.154 0 255 0
1.7205104 -0.87182993 2.1650002 0 255 0
1.7185693 -0.87344068 2.1690001 0 255 0
1.7158192 -0.87464875 2.1720002 0 255 0
1.7138426 -0.87625951 2.1760001 0 255 0
1.7118473 -0.87787026 2.1800001 0 255 0
1.7090502 -0.87907833 2.1830001 0 255 0
1.7070193 -0.88068908 2.187 0 255 0
1.7049699 -0.88229996 2.1910002 0 255 0
1.7052287 -0.88511878 2.1980002 0 255 0
1.7062279 -0.88834029 2.2060001 0 255 0
1.7095025 -0.89276987 2.217 0 255 0
1.7158004 -0.89881027 2.2320001 0 255 0
1.7197282 -0.90364265 2.2440002 0 255 0
1.7235993 -0.90847492 2.256 0 255 0
1.7304605 -0.91491801 2.2720001 0 255 0
1.731172 -0.91813958 2.2800002 0 255 0
1.7318454 -0.92136109 2.2880001 0 255 0
1.7294629 -0.92297184 2.2920001 0 255 0
1.7270614 -0.9245826 2.296 0 255 0
1.7246412 -0.92619342 2.3000002 0 255 0
1.7192122 -0.92619342 2.3000002 0 255 0
1.7167636 -0.92780417 2.3040001 0 255 0
1.711325 -0.92780417 2.3040001 0 255 0
1.7088481 -0.92941493 2.3080001 0 255 0
1.7034001 -0.92941493 2.3080001 0 255 0
1.697952 -0.92941493 2.3080001 0 255 0
1.6925042 -0.92941493 2.3080001 0 255 0
1.6870562 -0.92941493 2.3080001 0 255 0
1.6852514 -0.93142843 2.3130002 0 255 0
1.6797916 -0.93142843 2.3130002 0 255 0
1.6743318 -0.93142843 2.3130002 0 255 0
1.6717581 -0.93303919 2.3170002 0 255 0
1.6691655 -0.93464994 2.3210001 0 255 0
1.6665539 -0.9362607 2.325 0 255 0
1.6639235 -0.93787146 2.329 0 255 0
1.6619865 -0.93988496 2.3340001 0 255 0
1.6593159 -0.94149572 2.3380001 0 255 0
1.6537971 -0.94149572 2.3380001 0 255 0
1.6539185 -0.94471729 2.3460002 0 255 0
1.651894 -0.94673073 2.3510001 0 255 0
1.6463444 -0.94673073 2.3510001 0 255 0
1.6407949 -0.94673073 2.3510001 0 255 0
1.6352454 -0.94673073 2.3510001 0 255 0
1.6352416 -0.9499523 2.3590002 0 255 0
1.6296732 -0.9499523 2.3590002 0 255 0
1.624105 -0.9499523 2.3590002 0 255 0
1.6185366 -0.9499523 2.3590002 0 255 0
1.616387 -0.95196575 2.3640001 0 255 0
1.6162579 -0.95518732 2.3720002 0 255 0
1.614054 -0.95720077 2.3770001 0 255 0
1.6111498 -0.95881146 2.381 0 255 0
1.6115984 -0.96243572 2.3900001 0 255 0
1.6146922 -0.96767074 2.4030001 0 255 0
1.6150463 -0.971295 2.4120002 0 255 0
1.6153578 -0.9749192 2.421 0 255 0
1.6156269 -0.97854346 2.4300001 0 255 0
1.6098909 -0.97854346 2.4300001 0 255 0
1.6074557 -0.98055696 2.4350002 0 255 0
1.6049969 -0.98257035 2.4400001 0 255 0
1.601859 -0.98418111 2.444 0 255 0
1.5993555 -0.98619461 2.4490001 0 255 0
1.5935746 -0.98619461 2.4490001 0 255 0
1.5910357 -0.98820812 2.4540002 0 255 0
1.5852431 -0.98820812 2.4540002 0 255 0
1.5852429 -0.99183232 2.4630001 0 255 0
1.5826354 -0.99384582 2.4680002 0 255 0
1.5825599 -0.99747008 2.4770002 0 255 0
1.5862612 -1.0035104 2.4920001 0 255 0
1.5892574 -1.0091481 2.506 0 255 0
1.5928195 -1.0151886 2.5210001 0 255 0
1.5931633 -1.0192155 2.5310001 0 255 0
1.6028665 -1.0292828 2.5560002 0 255 0
1.6030804 -1.0333097 2.5660002 0 255 0
1.6032472 -1.0373367 2.5760002 0 255 0
1.6039869 -1.0417663 2.5870001 0 255 0
1.6009685 -1.0437796 2.592 0 255 0
1.5979267 -1.0457932 2.5970001 0 255 0
1.5948614 -1.0478066 2.6020002 0 255 0
1.5923828 -1.0502228 2.608 0 255 0
1.5892677 -1.0522362 2.6130002 0 255 0
1.5891583 -1.0562632 2.6230001 0 255 0
1.5896052 -1.0606928 2.6340001 0 255 0
1.5900004 -1.0651225 2.6450002 0 255 0
1.5933372 -1.0715655 2.661 0 255 0
1.5936166 -1.0759951 2.6720002 0 255 0
1.5974083 -1.0828409 2.6890001 0 255 0
1.5946113 -1.0852571 2.6950002 0 255 0
1.5911962 -1.0872705 2.7 0 255 0
1.5918667 -1.0921029 2.7120001 0 255 0
1.5854651 -1.0921029 2.7120001 0 255 0
1.5825571 -1.094519 2.7180002 0 255 0
1.5761414 -1.094519 2.7180002 0 255 0
1.5760784 -1.0989486 2.7290001 0 255 0
1.5696367 -1.0989486 2.7290001 0 255 0
1.5666318 -1.1013647 2.7350001 0 255 0
1.5601758 -1.1013647 2.7350001 0 255 0
1.5571284 -1.103781 2.7410002 0 255 0
1.5506585 -1.103781 2.7410002 0 255 0
1.5441884 -1.103781 2.7410002 0 255 0
1.5410844 -1.1061971 2.7470002 0 255 0
1.5346003 -1.1061971 2.7470002 0 255 0
1.5308974 -1.1082106 2.7520001 0 255 0
1.5277249 -1.1106267 2.7580001 0 255 0
1.5212147 -1.1106267 2.7580001 0 255 0
1.5179998 -1.1130428 2.7640002 0 255 0
1.5114754 -1.1130428 2.7640002 0 255 0
1.5049511 -1.1130428 2.7640002 0 255 0
1.5016795 -1.1154591 2.7700002 0 255 0
1.495141 -1.1154591 2.7700002 0 255 0
1.4886026 -1.1154591 2.7700002 0 255 0
1.4852741 -1.1178751 2.776 0 255 0
1.4787215 -1.1178751 2.776 0 255 0
1.4753507 -1.1202914 2.7820001 0 255 0
1.4719517 -1.1227075 2.7880001 0 255 0
1.4653708 -1.1227075 2.7880001 0 255 0
1.4619292 -1.1251236 2.7940001 0 255 0
1.4553341 -1.1251236 2.7940001 0 255 0
1.4518501 -1.1275399 2.8000002 0 255 0
1.4452406 -1.1275399 2.8000002 0 255 0
1.4417142 -1.129956 2.8060002 0 255 0
1.4381592 -1.132372 2.812 0 255 0
1.4350852 -1.135191 2.8190002 0 255 0
1.4345115 -1.1400232 2.8310001 0 255 0
1.4343857 -1.1452583 2.8440001 0 255 0
1.4367086 -1.1525068 2.8620002 0 255 0
1.4429433 -1.1629769 2.8880002 0 255 0
1.4460717 -1.1710306 2.9080002 0 255 0
1.4520752 -1.1815007 2.9340003 0 255 0
1.4550006 -1.1895546 2.9540002 0 255 0
1.4583218 -1.198011 2.9750001 0 255 0
1.4547142 -1.2008299 2.9820001 0 255 0
1.4578702 -1.2092865 3.0030003 0 255 0
1.460927 -1.217743 3.0240002 0 255 0
1.4638847 -1.2261995 3.0450001 0 255 0
1.4743975 -1.2410992 3.0820003 0 255 0
1.4809273 -1.2527772 3.1110001 0 255 0
1.4882677 -1.2652607 3.1420002 0 255 0
1.4954616 -1.2777442 3.1730001 0 255 0
1.4950062 -1.2837846 3.1880002 0 255 0
1.4949464 -1.2902278 3.2040002 0 255 0
1.4910972 -1.2934492 3.2120001 0 255 0
1.4909053 -1.2998923 3.2280002 0 255 0
1.4869616 -1.3031138 3.2360001 0 255 0
1.4870946 -1.3099597 3.2530003 0 255 0
1.4907856 -1.3200269 3.2780001 0 255 0
1.4979781 -1.3333157 3.3110001 0 255 0
1.5018642 -1.3437858 3.3370001 0 255 0
1.5096569 -1.3578801 3.3720002 0 255 0
1.5137217 -1.3687527 3.3990002 0 255 0
1.5176589 -1.3796254 3.4260001 0 255 0
1.5175033 -1.386874 3.4440002 0 255 0
1.5177007 -1.3945251 3.4630001 0 255 0
1.5134495 -1.3981494 3.4720001 0 255 0
1.5091559 -1.4017736 3.4810002 0 255 0
1.500939 -1.4017736 3.4810002 0 255 0
1.4970105 -1.4058005 3.4910002 0 255 0
1.48877 -1.4058005 3.4910002 0 255 0
1.4843466 -1.4094248 3.5000002 0 255 0
1.4760848 -1.4094248 3.5000002 0 255 0
1.4757913 -1.4170759 3.5190001 0 255 0
1.4674848 -1.4170759 3.5190001 0 255 0
1.463325 -1.4211029 3.5290003 0 255 0
1.4549949 -1.4211029 3.5290003 0 255 0
1.4507642 -1.4251298 3.5390003 0 255 0
1.4501544 -1.4327809 3.5580001 0 255 0
1.4458079 -1.4368079 3.5680001 0 255 0
1.4414142 -1.4408348 3.5780001 0 255 0
1.4449835 -1.4529155 3.6080003 0 255 0
1.4404483 -1.4569426 3.6180003 0 255 0
1.444177 -1.4694259 3.6490002 0 255 0
1.4477594 -1.4819094 3.6800001 0 255 0
1.4433745 -1.4863391 3.6910002 0 255 0
1.4471002 -1.4992253 3.7230003 0 255 0
1.4506747 -1.5121114 3.7550001 0 255 0
1.4502585 -1.5209707 3.7770002 0 255 0
1.45012 -1.5302325 3.8000002 0 255 0
1.445322 -1.5346621 3.8110001 0 255 0
1.4404721 -1.5390918 3.8220003 0 255 0
1.4359446 -1.5439241 3.8340001 0 255 0
1.4309884 -1.5483538 3.8450003 0 255 0
1.4263501 -1.5531861 3.8570001 0 255 0
1.4212877 -1.5576158 3.8680003 0 255 0
1.4121574 -1.5576158 3.8680003 0 255 0
1.4073799 -1.562448 3.8800001 0 255 0
1.4025457 -1.5672803 3.8920002 0 255 0
1.3972967 -1.5717099 3.9030001 0 255 0
1.3923515 -1.5765423 3.9150002 0 255 0
1.3873497 -1.5813746 3.9270003 0 255 0
1.3822913 -1.5862069 3.9390001 0 255 0
1.3858901 -1.6011064 3.9760001 0 255 0
1.3765049 -1.6011064 3.9760001 0 255 0
1.3753719 -1.6107711 4 0 127 0
1.3703693 -1.616006 4.013 0 127 0
1.3737833 -1.6313084 4.0510001 0 127 0
1.3682623 -1.6361408 4.0630002 0 127 0
1.3673662 -1.6466109 4.0890002 0 127 0
1.3577143 -1.6466109 4.0890002 0 127 0
1.3523481 -1.6518458 4.1020002 0 127 0
1.351503 -1.6627185 4.1290002 0 127 0
1.3502057 -1.6731886 4.1550002 0 127 0
1.3449143 -1.6788262 4.1690001 0 127 0
1.3392365 -1.6840612 4.1820002 0 127 0
1.3338153 -1.6896989 4.1960001 0 127 0
1.328328 -1.6953366 4.21 0 127 0
1.3183905 -1.6953366 4.21 0 127 0
1.3124931 -1.7005715 4.223 0 127 0
1.3068429 -1.7062092 4.237 0 127 0
1.3011268 -1.7118471 4.2510004 0 127 0
1.2953444 -1.7174848 4.2650003 0 127 0
1.2894959 -1.7231225 4.2790003 0 127 0
1.2925514 -1.740841 4.3230004 0 127 0
1.2909493 -1.752519 4.3520002 0 127 0
1.2980386 -1.7762779 4.4110003 0 0 0
1.3101039 -1.8072853 4.4880004 0 0 0
1.3180414 -1.8330575 4.552 0 0 0
1.3259641 -1.8592325 4.6170001 0 0 0
1.324465 -1.8725214 4.6500001 0 0 0
1.3278949 -1.8930588 4.7010002 0 0 0
1.3215604 -1.8999046 4.7180004 0 0 0
1.3154231 -1.907153 4.7360001 0 0 0
1.3089255 -1.9139988 4.7530003 0 0 0
1.3026208 -1.9212474 4.7710004 1 0 0
1.3008324 -1.9353415 4.8060002 1 0 0
1.2994153 -1.9502412 4.8430004 1 0 0
1.2975576 -1.9647381 4.8790002 1 0 0
1.3008018 -1.987289 4.9350004 1 0 0
1.304304 -2.0106449 4.993 1 0 0
1.3075324 -2.0340011 5.0510001 1 0 0
1.3058698 -2.0501089 5.0910001 1 0 0
1.3200296 -2.0915864 5.1940002 2 0 0
1.3183444 -2.1084993 5.2360001 2 0 0
1.3221974 -2.1346743 5.3010001 2 0 0
1.3151201 -2.1435337 5.3230004 2 0 0
1.3133221 -2.161252 5.3670001 2 0 0
1.3062273 -2.1705141 5.3900003 2 0 0
1.3043036 -2.1886353 5.4350004 2 0 0
1.3024051 -2.2071593 5.4810004 3 0 0
1.3005247 -2.2260857 5.5280004 3 0 0
1.2930655 -2.2357502 5.552 3 0 0
1.2967898 -2.265147 5.6250005 3 0 0
1.3006256 -2.2953489 5.7000003 3 0 0
1.3043332 -2.3259537 5.7760005 4 0 0
1.2965089 -2.3364234 5.802 4 0 0
1.2887832 -2.3472962 5.8290005 4 0 0
1.2866172 -2.368639 5.8820004 4 0 0
1.2785751 -2.3795116 5.9090004 4 0 0
1.2763979 -2.4016597 5.9640002 4 0 0
1.2680348 -2.4125323 5.9910002 4 0 0
1.2597535 -2.4238079 6.0190001 5 0 0
1.251547 -2.4354861 6.0480003 5 0 0
1.2489316 -2.4584396 6.1050005 5 0 0
1.2403852 -2.4701176 6.1340003 5 0 0
1.2317019 -2.4817955 6.1630001 5 0 0
1.2230791 -2.4938765 6.1930003 5 0 0
1.2201687 -2.518038 6.2530003 6 0 0
1.2171679 -2.5426021 6.3140001 6 0 0
1.220353 -2.580858 6.4090004 6 0 0
1.2296715 -2.6332083 6.5390005 6 0 0
1.2393047 -2.6875715 6.6740003 7 0 0
1.269567 -2.7886474 6.9250002 7 0 0
1.2950249 -2.8816695 7.1560001 8 0 0
1.3072467 -2.9473085 7.3190002 8 0 0
1.3123542 -2.9984505 7.4460006 8 0 0
1.3332076 -3.0874455 7.6670003 9 0 0
1.3895534 -3.2622144 8.1010008 10 0 0
1.4335307 -3.4124184 8.474 10 0 0
1.4617356 -3.5287969 8.7630005 11 0 0
1.4609489 -3.5775228 8.8840008 11 0 0
1.4498658 -3.602087 8.9450006 12 0 0
1.438814 -3.6274567 9.0080004 12 0 0
1.4274651 -3.6528261 9.0710001 12 0 0
1.4161285 -3.6790013 9.1360006 12 0 0
1.4044852 -3.7051761 9.2010002 13 0 0
1.3926853 -3.7317538 9.2670002 13 0 0
1.3708109 -3.7317538 9.2670002 13 0 0
1.3586891 -3.7587345 9.3340006 14 0 0
1.3366566 -3.7587345 9.3340006 14 0 0
1.3242011 -3.7861176 9.4020004 14 0 0
1.302008 -3.7861176 9.4020004 14 0 0
1.2798148 -3.7861176 9.4020004 14 0 0
1.2668513 -3.8139033 9.4710007 15 0 0
1.2538246 -3.8424947 9.5420008 15 0 0
1.2313011 -3.8424947 9.5420008 15 0 0
1.2268926 -3.9000795 9.6850004 16 0 0
1.2131066 -3.9294763 9.7580004 16 0 0
1.2084889 -3.9902828 9.9090004 16 0 0
1.1941886 -4.0208874 9.9850006 17 0 0
0 -0 0 0 127 0
0 -0 0 0 127 0
0 -0 0 0 127 0
0 -0 0 0 127 0
0 -0 0 0 127 0
0 -0 0 0 127 0
0 -0 0 0 127 0
0 -0 0 0 127 0
0 -0 0 0 127 0
0 -0 0 0 127 0
0 -0 0 0 127 0
0 -0 0 0 127 0
0 -0 0 0 127 0
0 -0 0 0 127 0
0 -0 0 0 127 0
0 -0 0 0 127 0
0 -0 0 0 127 0
0 -0 0 0 127 0
0 -0 0 0 127 0
0 -0 0 0 127 0
0 -0 0 0 127 0
0 -0 0 0 127 0
0 -0 0 0 127 0
0 -0 0 0 127 0
0 -0 0 0 127 0
0 -0 0 0 127 0
0 -0 0 0 127 0
0 -0 0 0 127 0
0 -0 0 0 127 0
0 -0 0 0 127 0
0 -0 0 0 127 0
0 -0 0 0 127 0
0 -0 0 0 127 0
0 -0 0 0 127 0
0 -0 0 0 127 0
0 -0 0 0 127 0
0 -0 0 0 127 0
0 -0 0 0 127 0
1.4300931 -0.63795888 1.575 4 0 0
1.4263753 -0.63795888 1.575 4 0 0
0 -0 0 0 127 0
0 -0 0 0 127 0
1.4215118 -0.64079428 1.582 4 0 0
1.4195701 -0.64160442 1.5840001 4 0 0
1.4194063 -0.6432246 1.5880001 4 0 0
1.4227897 -0.646465 1.5960001 4 0 0
1.4350264 -0.65375596 1.6140001 4 0 0
1.448065 -0.661452 1.6330001 4 0 0
1.4512854 -0.6646924 1.641 4 0 0
1.4544681 -0.66793287 1.649 4 0 0
1.46553 -0.67481875 1.6660001 4 0 0
1.4773891 -0.68210971 1.6840001 4 0 0
1.4865383 -0.68818551 1.6990001 4 0 0
1.4903811 -0.69183099 1.7080001 4 0 0
1.4907006 -0.69385624 1.7130001 4 0 0
1.4883928 -0.69466633 1.715 4 0 0
1.4860758 -0.69547647 1.7170001 4 0 0
1.4846121 -0.69669163 1.72 4 0 0
1.4839953 -0.69831187 1.7240001 4 0 0
1.484218 -0.70033711 1.7290001 4 0 0
1.4878412 -0.70398259 1.738 4 0 0
1.4922758 -0.70803308 1.748 4 0 0
1.5000685 -0.71370387 1.7620001 4 0 0
1.514587 -0.722615 1.784 4 0 0
1.5273086 -0.73071611 1.8040001 4 0 0
1.5644189 -0.75056368 1.853 4 0 0
0 -0 0 0 127 0
1.6211554 -0.7821579 1.9310001 4 0 0
1.6442243 -0.79552466 1.9640001 4 0 0
1.6671375 -0.80889142 1.9970001 4 0 0
1.6890624 -0.8218531 2.029 0 255 0
1.6942343 -0.82671374 2.0410001 0 255 0
1.703488 -0.83359963 2.0580001 0 255 0
1.7011062 -0.83481479 2.0610001 0 255 0
1.6987104 -0.83603001 2.0640001 0 255 0
1.6995829 -0.83886534 2.0710001 0 255 0
1.6971494 -0.8400805 2.0740001 0 255 0
1.6922538 -0.8400805 2.0740001 0 255 0
1.6906124 -0.84170067 2.0780001 0 255 0
1.6905748 -0.84413105 2.0840001 0 255 0
1.6913173 -0.84696639 2.0910001 0 255 0
1.6976725 -0.85263711 2.105 0 255 0
1.7007451 -0.85668766 2.115 0 255 0
1.7069777 -0.86235845 2.1290002 0 255 0
1.7163416 -0.86964935 2.1470001 0 255 0
1.716853 -0.87248474 2.154 0 255 0
1.7205104 -0.87694037 2.1650002 0 255 0
1.7185693 -0.8785606 2.1690001 0 255 0
1.7158192 -0.87977576 2.1720002 0 255 0
1.7138426 -0.88139594 2.1760001 0 255 0
1.7118473 -0.88301611 2.1800001 0 255 0
1.7090502 -0.88423127 2.1830001 0 255 0
1.7038972 -0.88423127 2.1830001 0 255 0
1.701857 -0.8858515 2.187 0 255 0
1.7021253 -0.88868684 2.194 0 255 0
1.7000405 -0.89030713 2.1980002 0 255 0
1.7033339 -0.89476269 2.2090001 0 255 0
1.7073444 -0.89962339 2.2210002 0 255 0
1.7105318 -0.9040789 2.2320001 0 255 0
1.7174873 -0.91055977 2.2480001 0 255 0
1.7213207 -0.91542035 2.26 0 255 0
1.7281346 -0.92190123 2.276 0 255 0
1.7288177 -0.92514169 2.2840002 0 255 0
1.7294629 -0.9283821 2.2920001 0 255 0
1.7270614 -0.93000227 2.296 0 255 0
1.7216418 -0.93000227 2.296 0 255 0
1.7192122 -0.93162256 2.3000002 0 255 0
1.7137831 -0.93162256 2.3000002 0 255 0
1.711325 -0.93324274 2.3040001 0 255 0
1.7058866 -0.93324274 2.3040001 0 255 0
1.700448 -0.93324274 2.3040001 0 255 0
1.697952 -0.93486297 2.3080001 0 255 0
1.6925042 -0.93486297 2.3080001 0 255 0
1.6870562 -0.93486297 2.3080001 0 255 0
1.6816082 -0.93486297 2.3080001 0 255 0
1.6797916 -0.93688828 2.3130002 0 255 0
1.6743318 -0.93688828 2.3130002 0 255 0
1.6688721 -0.93688828 2.3130002 0 255 0
1.6662889 -0.93850845 2.3170002 0 255 0
1.6636868 -0.94012862 2.3210001 0 255 0
1.6610658 -0.94174886 2.325 0 255 0
1.658426 -0.94336903 2.329 0 255 0
1.6564771 -0.94539434 2.3340001 0 255 0
1.6537971 -0.94701457 2.3380001 0 255 0
1.6539185 -0.95025504 2.3460002 0 255 0
1.6483809 -0.95025504 2.3460002 0 255 0
1.6463444 -0.95228022 2.3510001 0 255 0
1.6407949 -0.95228022 2.3510001 0 255 0
1.6352454 -0.95228022 2.3510001 0 255 0
1.629696 -0.95228022 2.3510001 0 255 0
1.6241466 -0.95228022 2.3510001 0 255 0
1.6185971 -0.95228022 2.3510001 0 255 0
1.6185366 -0.95552069 2.3590002 0 255 0
1.616387 -0.95754594 2.3640001 0 255 0
1.6108067 -0.95754594 2.3640001 0 255 0
1.6106589 -0.9607864 2.3720002 0 255 0
1.6084431 -0.96281165 2.3770001 0 255 0
1.6115984 -0.9680773 2.3900001 0 255 0
1.6146922 -0.97334301 2.4030001 0 255 0
1.6150463 -0.97698855 2.4120002 0 255 0
1.6126889 -0.97901374 2.4170001 0 255 0
1.6156269 -0.98427945 2.4300001 0 255 0
1.6098909 -0.98427945 2.4300001 0 255 0
1.6074557 -0.98630476 2.4350002 0 255 0
1.6049969 -0.98832995 2.4400001 0 255 0
1.601859 -0.98995018 2.444 0 255 0
1.5993555 -0.99197549 2.4490001 0 255 0
1.5935746 -0.99197549 2.4490001 0 255 0
1.5910357 -0.99400079 2.4540002 0 255 0
1.5852431 -0.99400079 2.4540002 0 255 0
1.5820248 -0.99562097 2.4580002 0 255 0
1.5826354 -0.99967152 2.4680002 0 255 0
1.5793654 -1.0012918 2.4720001 0 255 0
1.5798957 -1.0053422 2.4820001 0 255 0
1.5829155 -1.0110129 2.4960001 0 255 0
1.5928195 -1.0211393 2.5210001 0 255 0
1.5931633 -1.0251899 2.5310001 0 255 0
1.5965954 -1.0312656 2.546 0 255 0
1.5999566 -1.0373415 2.5610001 0 255 0
1.6032472 -1.0434173 2.5760002 0 255 0
1.6039869 -1.0478728 2.5870001 0 255 0
1.5978802 -1.0478728 2.5870001 0 255 0
1.5948502 -1.049898 2.592 0 255 0
1.5917966 -1.0519234 2.5970001 0 255 0
1.5923828 -1.056379 2.608 0 255 0
1.5892677 -1.0584042 2.6130002 0 255 0
1.5830998 -1.0584042 2.6130002 0 255 0
1.5829668 -1.0624547 2.6230001 0 255 0
1.5833877 -1.0669103 2.6340001 0 255 0
1.5837569 -1.071366 2.6450002 0 255 0
1.584074 -1.0758215 2.6560001 0 255 0
1.5873095 -1.0823023 2.6720002 0 255 0
1.5845525 -1.0847327 2.6780002 0 255 0
1.5847136 -1.0891882 2.6890001 0 255 0
1.5818882 -1.0916187 2.6950002 0 255 0
1.5784497 -1.0936438 2.7 0 255 0
1.5790635 -1.0985045 2.7120001 0 255 0
1.572662 -1.0985045 2.7120001 0 255 0
1.5697256 -1.1009349 2.7180002 0 255 0
1.5633098 -1.1009349 2.7180002 0 255 0
1.563195 -1.1053904 2.7290001 0 255 0
1.5601758 -1.1078207 2.7350001 0 255 0
1.5537199 -1.1078207 2.7350001 0 255 0
1.5506585 -1.1102511 2.7410002 0 255 0
1.5441884 -1.1102511 2.7410002 0 255 0
1.5410844 -1.1126814 2.7470002 0 255 0
1.5346003 -1.1126814 2.7470002 0 255 0
1.5308974 -1.1147066 2.7520001 0 255 0
1.5277249 -1.117137 2.7580001 0 255 0
1.5212147 -1.117137 2.7580001 0 255 0
1.5179998 -1.1195673 2.7640002 0 255 0
1.5114754 -1.1195673 2.7640002 0 255 0
1.5082181 -1.1219976 2.7700002 0 255 0
1.5016795 -1.1219976 2.7700002 0 255 0
1.495141 -1.1219976 2.7700002 0 255 0
1.4918269 -1.1244278 2.776 0 255 0
1.4852741 -1.1244278 2.776 0 255 0
1.4819175 -1.1268582 2.7820001 0 255 0
1.4785327 -1.1292886 2.7880001 0 255 0
1.4751195 -1.1317189 2.7940001 0 255 0
1.4685243 -1.1317189 2.7940001 0 255 0
1.4650687 -1.1341492 2.8000002 0 255 0
1.4615847 -1.1365795 2.8060002 0 255 0
1.4580722 -1.1390098 2.812 0 255 0
1.4550476 -1.1418452 2.8190002 0 255 0
1.4483935 -1.1418452 2.8190002 0 255 0
1.4448079 -1.1442754 2.825 0 255 0
1.4411941 -1.1467059 2.8310001 0 255 0
1.4441391 -1.1544019 2.8500001 0 255 0
1.4434642 -1.1592625 2.8620002 0 255 0
1.4497604 -1.169794 2.8880002 0 255 0
1.4529359 -1.1778949 2.9080002 0 255 0
1.4590008 -1.1884264 2.9340003 0 255 0
1.4619735 -1.1965274 2.9540002 0 255 0
1.4618963 -1.2021981 2.9680002 0 255 0
1.4617531 -1.2078688 2.9820001 0 255 0
1.4615438 -1.2135396 2.9960001 0 255 0
1.4646667 -1.2220458 3.0170002 0 255 0
1.4710723 -1.2333872 3.0450001 0 255 0
1.4816725 -1.2483742 3.0820003 0 255 0
1.4882708 -1.2601207 3.1110001 0 255 0
1.5028247 -1.2787532 3.1570001 0 255 0
1.5067408 -1.2884746 3.1810002 0 255 0
1.5063018 -1.2945503 3.1960001 0 255 0
1.5062609 -1.3010311 3.2120001 0 255 0
1.5024117 -1.3042716 3.2200003 0 255 0
1.4985248 -1.3075119 3.2280002 0 255 0
1.4987569 -1.3143979 3.2450001 0 255 0
1.4947734 -1.3176384 3.2530003 0 255 0
1.4985232 -1.3277646 3.2780001 0 255 0
1.4980623 -1.3342454 3.2940001 0 255 0
1.5097411 -1.3516628 3.3370001 0 255 0
1.5135659 -1.3621942 3.3630002 0 255 0
1.5136862 -1.3694851 3.381 0 255 0
1.525746 -1.3877125 3.4260001 0 255 0
1.5256327 -1.3950036 3.4440002 0 255 0
1.5214689 -1.398649 3.4530001 0 255 0
1.5216451 -1.406345 3.4720001 0 255 0
1.5173726 -1.4099904 3.4810002 0 255 0
1.5091559 -1.4099904 3.4810002 0 255 0
1.5052508 -1.414041 3.4910002 0 255 0
1.4970105 -1.414041 3.4910002 0 255 0
1.4926082 -1.4176865 3.5000002 0 255 0
1.4885876 -1.4217371 3.5100002 0 255 0
1.4840978 -1.4253825 3.5190001 0 255 0
1.4757913 -1.4253825 3.5190001 0 255 0
1.4716551 -1.4294331 3.5290003 0 255 0
1.463325 -1.4294331 3.5290003 0 255 0
1.4591179 -1.4334836 3.5390003 0 255 0
1.4548635 -1.4375341 3.5490003 0 255 0
1.4542301 -1.44523 3.5680001 0 255 0
1.4498601 -1.4492806 3.5780001 0 255 0
1.4454428 -1.4533311 3.5880001 0 255 0
1.4449835 -1.4614322 3.6080003 0 255 0
1.448809 -1.4739889 3.6390002 0 255 0
1.444177 -1.4780394 3.6490002 0 255 0
1.4438252 -1.4865454 3.6700001 0 255 0
1.4390728 -1.4905961 3.6800001 0 255 0
1.4428245 -1.5035578 3.7120001 0 255 0
1.4383122 -1.5080134 3.7230003 0 255 0
1.4418111 -1.520975 3.7550001 0 255 0
1.4413429 -1.5298862 3.7770002 0 255 0
1.4369786 -1.5347469 3.7890003 0 255 0
1.4363263 -1.543658 3.8110001 0 255 0
1.4314502 -1.5481137 3.8220003 0 255 0
1.4268945 -1.5529742 3.8340001 0 255 0
1.4219126 -1.5574299 3.8450003 0 255 0
1.4172457 -1.5622904 3.8570001 0 255 0
1.4081414 -1.5622904 3.8570001 0 255 0
1.4030272 -1.5667461 3.8680003 0 255 0
1.3982213 -1.5716066 3.8800001 0 255 0
1.3933586 -1.5764674 3.8920002 0 255 0
1.3880838 -1.580923 3.9030001 0 255 0
1.3831103 -1.5857836 3.9150002 0 255 0
1.3780802 -1.5906442 3.9270003 0 255 0
1.3729932 -1.5955049 3.9390001 0 255 0
1.3720044 -1.6052262 3.9630003 0 255 0
1.3671197 -1.6104918 3.9760001 0 255 0
1.3659301 -1.620213 4 0 127 0
1.3608967 -1.6254787 4.013 0 127 0
1.3598433 -1.6356051 4.0380001 0 127 0
1.3546588 -1.6408708 4.0510001 0 127 0
1.3490812 -1.6457314 4.0630002 0 127 0
1.3480622 -1.6562629 4.0890002 0 127 0
1.3384103 -1.6562629 4.0890002 0 127 0
1.3329828 -1.6615286 4.1020002 0 127 0
1.3320103 -1.672465 4.1290002 0 127 0
1.33059 -1.6829964 4.1550002 0 127 0
1.3252326 -1.6886671 4.1690001 0 127 0
1.3194935 -1.6939328 4.1820002 0 127 0
1.3140063 -1.6996036 4.1960001 0 127 0
1.3084527 -1.7052742 4.21 0 127 0
1.3025249 -1.7105399 4.223 0 127 0
1.2968417 -1.7162106 4.237 0 127 0
1.2868403 -1.7162106 4.237 0 127 0
1.285277 -1.7275523 4.2650003 0 127 0
1.2793956 -1.733223 4.2790003 0 127 0
1.2778975 -1.7449695 4.3080001 0 127 0
1.2762624 -1.7567161 4.3370004 0 127 0
1.2832479 -1.7806143 4.3960004 0 127 0
1.2861907 -1.7992468 4.4420004 0 0 0
1.2935114 -1.8243599 4.5040002 0 0 0
1.2965516 -1.8438025 4.552 0 0 0
1.3041674 -1.8701309 4.6170001 0 0 0
1.3025128 -1.8834977 4.6500001 0 0 0
1.3057019 -1.9041555 4.7010002 0 0 0
1.2946053 -1.9041555 4.7010002 0 0 0
1.2930646 -1.9183322 4.7360001 0 0 0
1.2864869 -1.9252182 4.7530003 0 0 0
1.2800972 -1.9325093 4.7710004 0 0 0
1.2736223 -1.9398 4.789 1 0 0
1.2765518 -1.9616731 4.8430004 1 0 0
1.2745242 -1.9762549 4.8790002 1 0 0
1.277504 -1.998938 4.9350004 1 0 0
1.2807322 -2.0224309 4.993 1 0 0
1.2836869 -2.0459239 5.0510001 1 0 0
1.2921588 -2.0787334 5.1320004 1 0 0
1.2955091 -2.1038468 5.1940002 2 0 0
1.2990609 -2.1297703 5.2580004 2 0 0
1.3025552 -2.1560986 5.3230004 2 0 0
1.2953219 -2.1650097 5.3450003 2 0 0
1.2879848 -2.1739209 5.3670001 2 0 0
1.2860092 -2.1921482 5.4120002 2 0 0
1.2786454 -2.2014647 5.4350004 2 0 0
1.2765297 -2.2200971 5.4810004 3 0 0
1.2744273 -2.2391346 5.5280004 3 0 0
1.2723312 -2.2585771 5.5760002 3 0 0
1.2702345 -2.2784247 5.6250005 3 0 0
1.2625432 -2.2885509 5.6500001 3 0 0
1.2602615 -2.3088038 5.7000003 3 0 0
1.2468067 -2.3088038 5.7000003 3 0 0
1.2387615 -2.3189301 5.7250004 4 0 0
1.2361628 -2.3395879 5.7760005 4 0 0
1.2280316 -2.3501191 5.802 4 0 0
1.2199873 -2.3610556 5.8290005 4 0 0
1.2171957 -2.3825235 5.8820004 4 0 0
1.2200865 -2.4157376 5.9640002 4 0 0
1.2114685 -2.4266741 5.9910002 5 0 0
1.2143145 -2.4611037 6.0760002 5 0 0
1.211427 -2.4845967 6.1340003 5 0 0
1.2026067 -2.4963434 6.1630001 5 0 0
1.1938423 -2.5084949 6.1930003 5 0 0
1.1906486 -2.5327981 6.2530003 5 0 0
1.1873598 -2.5575063 6.3140001 6 0 0
1.1841543 -2.5830247 6.3770003 6 0 0
1.1988013 -2.6486435 6.5390005 6 0 0
1.22698 -2.7462611 6.7800002 7 0 0
1.2504488 -2.835778 7.0010004 7 0 0
1.2755181 -2.9313707 7.2370005 8 0 0
1.2726941 -2.9645848 7.3190002 8 0 0
1.2921251 -3.0512664 7.5330005 8 0 0
1.3450558 -3.2205784 7.9510002 9 0 0
1.3951794 -3.3878655 8.3640003 10 0 0
1.4313484 -3.5255837 8.7040005 11 0 0
1.4300911 -3.5737848 8.823 11 0 0
1.4287513 -3.6232016 8.9450006 11 0 0
1.417551 -3.6487198 9.0080004 12 0 0
1.4060532 -3.6742382 9.0710001 12 0 0
1.3945634 -3.7005668 9.1360006 12 0 0
1.3926853 -3.7536287 9.2670002 13 0 0
1.3807218 -3.7807674 9.3340006 13 0 0
1.3489363 -3.7536287 9.2670002 13 0 0
1.3366566 -3.7807674 9.3340006 13 0 0
1.3146238 -3.7807674 9.3340006 13 0 0
1.302008 -3.808311 9.4020004 14 0 0
1.2798148 -3.808311 9.4020004 14 0 0
1.2576218 -3.808311 9.4020004 14 0 0
1.2354285 -3.808311 9.4020004 14 0 0
1.2221392 -3.8362596 9.4710007 15 0 0
1.2087774 -3.8650186 9.5420008 15 0 0
1.1862538 -3.8650186 9.5420008 15 0 0
1.1811702 -3.922941 9.6850004 15 0 0
1.1670398 -3.9525099 9.7580004 16 0 0
1.1617092 -4.0136728 9.9090004 16 0 0
1.14705 -4.044457 9.9850006 17 0 0
0 -0 0 0 127 0
0 -0 0 0 127 0
0 -0 0 0 127 0
0 -0 0 0 127 0
0 -0 0 0 127 0
0 -0 0 0 127 0
0 -0 0 0 127 0
0 -0 0 0 127 0
0 -0 0 0 127 0
0 -0 0 0 127 0
0 -0 0 0 127 0
0 -0 0 0 127 0
0 -0 0 0 127 0
0 -0 0 0 127 0
0 -0 0 0 127 0
0 -0 0 0 127 0
0 -0 0 0 127 0
0 -0 0 0 127 0
0 -0 0 0 127 0
0 -0 0 0 127 0
0 -0 0 0 127 0
0 -0 0 0 127 0
0 -0 0 0 127 0
0 -0 0 0 127 0
0 -0 0 0 127 0
0 -0 0 0 127 0
0 -0 0 0 127 0
0 -0 0 0 127 0
0 -0 0 0 127 0
0 -0 0 0 127 0
0 -0 0 0 127 0
0 -0 0 0 127 0
0 -0 0 0 127 0
0 -0 0 0 127 0
0 -0 0 0 127 0
0 -0 0 0 127 0
0 -0 0 0 127 0
0 -0 0 0 127 0
0 -0 0 0 127 0
0 -0 0 0 127 0
0 -0 0 0 127 0
0 -0 0 0 127 0
0 -0 0 0 127 0
0 -0 0 0 127 0
0 -0 0 0 127 0
1.4334874 -0.65512127 1.608 4 0 0
1.4421394 -0.66082507 1.6220001 4 0 0
1.451612 -0.66693628 1.6370001 4 0 0
1.4512854 -0.66856593 1.641 4 0 0
1.4544681 -0.67182523 1.649 4 0 0
1.460252 -0.67630678 1.6600001 4 0 0
1.4677386 -0.68160319 1.6730001 4 0 0
1.4769138 -0.6877144 1.6880001 4 0 0
1.4807826 -0.6913811 1.697 4 0 0
1.4811281 -0.69341815 1.702 4 0 0
1.4823178 -0.69586265 1.7080001 4 0 0
1.4808826 -0.6970849 1.7110001 4 0 0
1.4785701 -0.6978997 1.7130001 4 0 0
1.4762481 -0.69871455 1.715 4 0 0
1.4739169 -0.69952941 1.7170001 4 0 0
1.4758564 -0.70238131 1.7240001 4 0 0
1.480324 -0.70645541 1.7340001 4 0 0
1.4941093 -0.71501112 1.7550001 4 0 0
1.5128891 -0.72601128 1.7820001 4 0 0
1.5273086 -0.73497438 1.8040001 4 0 0
1.5669518 -0.7561599 1.8560001 4 0 0
0 -0 0 0 127 0
1.623674 -0.78793818 1.9340001 4 0 0
1.6467359 -0.80138284 1.9670001 4 0 0
1.6671375 -0.81360525 1.9970001 5 0 0
1.6890624 -0.82664245 2.029 0 255 0
1.6975546 -0.83316112 2.0450001 0 255 0
1.703488 -0.83845747 2.0580001 0 255 0
1.7011062 -0.83967972 2.0610001 0 255 0
1.6987104 -0.84090197 2.0640001 0 255 0
1.6995829 -0.84375387 2.0710001 0 255 0
1.6971494 -0.84497613 2.0740001 0 255 0
1.6922538 -0.84497613 2.0740001 0 255 0
1.6930531 -0.84782797 2.0810001 0 255 0
1.6905748 -0.84905022 2.0840001 0 255 0
1.6945528 -0.85353178 2.095 0 255 0
1.6976725 -0.85760587 2.105 0 255 0
1.7063742 -0.86453199 2.1220002 0 255 0
1.7069777 -0.8673839 2.1290002 0 255 0
1.7163416 -0.8747173 2.1470001 0 255 0
1.7200413 -0.87919879 2.158 0 255 0
1.7205104 -0.88205081 2.1650002 0 255 0
1.7185693 -0.8836804 2.1690001 0 255 0
1.7158192 -0.88490266 2.1720002 0 255 0
1.7138426 -0.88653231 2.1760001 0 255 0
1.7118473 -0.88816196 2.1800001 0 255 0
1.7090502 -0.88938421 2.1830001 0 255 0
1.7038972 -0.88938421 2.1830001 0 255 0
1.701857 -0.8910138 2.187 0 255 0
1.6997981 -0.89264357 2.1910002 0 255 0
1.6969465 -0.8938657 2.194 0 255 0
1.6979363 -0.89712507 2.2020001 0 255 0
1.6981196 -0.89997697 2.2090001 0 255 0
1.7082326 -0.90812522 2.2290001 0 255 0
1.7144314 -0.91423649 2.2440002 0 255 0
1.7182741 -0.91912538 2.256 0 255 0
1.7250975 -0.92564398 2.2720001 0 255 0
1.72579 -0.92890334 2.2800002 0 255 0
1.7294629 -0.93379229 2.2920001 0 255 0
1.7240525 -0.93379229 2.2920001 0 255 0
1.7216418 -0.93542188 2.296 0 255 0
1.7192122 -0.93705165 2.3000002 0 255 0
1.7137831 -0.93705165 2.3000002 0 255 0
1.708354 -0.93705165 2.3000002 0 255 0
1.702925 -0.93705165 2.3000002 0 255 0
1.700448 -0.93868124 2.3040001 0 255 0
1.6950094 -0.93868124 2.3040001 0 255 0
1.6895709 -0.93868124 2.3040001 0 255 0
1.6870562 -0.9403109 2.3080001 0 255 0
1.6816082 -0.9403109 2.3080001 0 255 0
1.6761603 -0.9403109 2.3080001 0 255 0
1.6743318 -0.942348 2.3130002 0 255 0
1.6688721 -0.942348 2.3130002 0 255 0
1.6634123 -0.942348 2.3130002 0 255 0
1.6608195 -0.94397765 2.3170002 0 255 0
1.6582081 -0.9456073 2.3210001 0 255 0
1.6555778 -0.9472369 2.325 0 255 0
1.6529285 -0.94886655 2.329 0 255 0
1.6509678 -0.95090365 2.3340001 0 255 0
1.6482785 -0.9525333 2.3380001 0 255 0
1.6483809 -0.95579267 2.3460002 0 255 0
1.6428432 -0.95579267 2.3460002 0 255 0
1.6373054 -0.95579267 2.3460002 0 255 0
1.6352454 -0.95782971 2.3510001 0 255 0
1.629696 -0.95782971 2.3510001 0 255 0
1.6241466 -0.95782971 2.3510001 0 255 0
1.6185971 -0.95782971 2.3510001 0 255 0
1.6185366 -0.96108907 2.3590002 0 255 0
1.616387 -0.96312606 2.3640001 0 255 0
1.6162579 -0.96638542 2.3720002 0 255 0
1.6106589 -0.96638542 2.3720002 0 255 0
1.6111498 -0.97005206 2.381 0 255 0
1.6115984 -0.97371882 2.3900001 0 255 0
1.6146922 -0.97901523 2.4030001 0 255 0
1.612368 -0.98105234 2.4080002 0 255 0
1.6153578 -0.98634863 2.421 0 255 0
1.6129675 -0.98838574 2.4260001 0 255 0
1.6098909 -0.99001539 2.4300001 0 255 0
1.6074557 -0.9920525 2.4350002 0 255 0
1.6049969 -0.99408948 2.4400001 0 255 0
1.601859 -0.99571913 2.444 0 255 0
1.5993555 -0.99775624 2.4490001 0 255 0
1.5935746 -0.99775624 2.4490001 0 255 0
1.5910357 -0.99979335 2.4540002 0 255 0
1.587827 -1.001423 2.4580002 0 255 0
1.5852429 -1.00346 2.4630001 0 255 0
1.5826354 -1.0054971 2.4680002 0 255 0
1.5793654 -1.0071268 2.4720001 0 255 0
1.5798957 -1.0112009 2.4820001 0 255 0
1.5829155 -1.0169047 2.4960001 0 255 0
1.5865012 -1.023016 2.5110002 0 255 0
1.5931633 -1.0311642 2.5310001 0 255 0
1.5965954 -1.0372753 2.546 0 255 0
1.5999566 -1.0433866 2.5610001 0 255 0
1.6001352 -1.0474607 2.5710001 0 255 0
1.6002667 -1.0515349 2.5810001 0 255 0
1.5978802 -1.0539794 2.5870001 0 255 0
1.5948502 -1.0560163 2.592 0 255 0
1.5917966 -1.0580535 2.5970001 0 255 0
1.5856665 -1.0580535 2.5970001 0 255 0
1.5862266 -1.062535 2.608 0 255 0
1.5830998 -1.0645721 2.6130002 0 255 0
1.5799493 -1.0666091 2.618 0 255 0
1.5767753 -1.0686462 2.6230001 0 255 0
1.5771704 -1.0731277 2.6340001 0 255 0
1.5775135 -1.0776094 2.6450002 0 255 0
1.5778046 -1.0820909 2.6560001 0 255 0
1.5810024 -1.0886096 2.6720002 0 255 0
1.578231 -1.0910541 2.6780002 0 255 0
1.5783663 -1.0955355 2.6890001 0 255 0
1.5755267 -1.09798 2.6950002 0 255 0
1.5691653 -1.09798 2.6950002 0 255 0
1.5657033 -1.1000171 2.7 0 255 0
1.5662603 -1.1049061 2.7120001 0 255 0
1.5633098 -1.1073506 2.7180002 0 255 0
1.5568941 -1.1073506 2.7180002 0 255 0
1.556753 -1.111832 2.7290001 0 255 0
1.5537199 -1.1142765 2.7350001 0 255 0
1.5472641 -1.1142765 2.7350001 0 255 0
1.5441884 -1.116721 2.7410002 0 255 0
1.5377184 -1.116721 2.7410002 0 255 0
1.5346003 -1.1191655 2.7470002 0 255 0
1.5308974 -1.1212026 2.7520001 0 255 0
1.5277249 -1.1236471 2.7580001 0 255 0
1.5212147 -1.1236471 2.7580001 0 255 0
1.5179998 -1.1260916 2.7640002 0 255 0
1.5114754 -1.1260916 2.7640002 0 255 0
1.5082181 -1.1285361 2.7700002 0 255 0
1.5016795 -1.1285361 2.7700002 0 255 0
1.4983796 -1.1309805 2.776 0 255 0
1.4918269 -1.1309805 2.776 0 255 0
1.4884844 -1.133425 2.7820001 0 255 0
1.4851136 -1.1358695 2.7880001 0 255 0
1.4785327 -1.1358695 2.7880001 0 255 0
1.4751195 -1.138314 2.7940001 0 255 0
1.471678 -1.1407585 2.8000002 0 255 0
1.4682081 -1.143203 2.8060002 0 255 0
1.4647099 -1.1456474 2.812 0 255 0
1.461702 -1.1484994 2.8190002 0 255 0
1.4581444 -1.1509438 2.825 0 255 0
1.4514762 -1.1509438 2.825 0 255 0
1.4545252 -1.1586846 2.8440001 0 255 0
1.4508665 -1.1611291 2.8500001 0 255 0
1.4537668 -1.1688701 2.8690002 0 255 0
1.4535513 -1.1741664 2.8820002 0 255 0
1.4532744 -1.1794628 2.8950002 0 255 0
1.4629287 -1.1929075 2.9280002 0 255 0
1.4659626 -1.2010558 2.9480002 0 255 0
1.4689022 -1.209204 2.9680002 0 255 0
1.4653442 -1.2120559 2.9750001 0 255 0
1.4686158 -1.2206116 2.9960001 0 255 0
1.4649588 -1.2234635 3.0030003 0 255 0
1.4748616 -1.2377229 3.0380001 0 255 0
1.4817008 -1.2495379 3.0670002 0 255 0
1.4922489 -1.2646122 3.1040001 0 255 0
1.503101 -1.280094 3.1420002 0 255 0
1.5142494 -1.2959832 3.1810002 0 255 0
1.5138458 -1.3020943 3.1960001 0 255 0
1.5138427 -1.3086129 3.2120001 0 255 0
1.5100125 -1.3118722 3.2200003 0 255 0
1.5061444 -1.3151315 3.2280002 0 255 0
1.5022385 -1.3183908 3.2360001 0 255 0
1.4987569 -1.3220576 3.2450001 0 255 0
1.5021254 -1.3318355 3.2690001 0 255 0
1.5021805 -1.3387616 3.2860003 0 255 0
1.5057936 -1.3489469 3.3110001 0 255 0
1.5138129 -1.3632064 3.3460002 0 255 0
1.5176165 -1.3737992 3.3720002 0 255 0
1.5257742 -1.388466 3.4080002 0 255 0
1.525746 -1.3957994 3.4260001 0 255 0
1.5256327 -1.4031329 3.4440002 0 255 0
1.5258751 -1.4108738 3.4630001 0 255 0
1.5216451 -1.4145405 3.4720001 0 255 0
1.5173726 -1.4182073 3.4810002 0 255 0
1.5134913 -1.4222814 3.4910002 0 255 0
1.5052508 -1.4222814 3.4910002 0 255 0
1.5008699 -1.4259481 3.5000002 0 255 0
1.4926082 -1.4259481 3.5000002 0 255 0
1.4885876 -1.4300222 3.5100002 0 255 0
1.4840978 -1.4336889 3.5190001 0 255 0
1.4799852 -1.4377631 3.5290003 0 255 0
1.4716551 -1.4377631 3.5290003 0 255 0
1.4674716 -1.4418373 3.5390003 0 255 0
1.4632409 -1.4459114 3.5490003 0 255 0
1.4585528 -1.449578 3.5580001 0 255 0
1.4542301 -1.4536521 3.5680001 0 255 0
1.4539123 -1.4618005 3.5880001 0 255 0
1.4535 -1.4699488 3.6080003 0 255 0
1.4449835 -1.4699488 3.6080003 0 255 0
1.448809 -1.4825786 3.6390002 0 255 0
1.4402193 -1.4825786 3.6390002 0 255 0
1.4355636 -1.4866527 3.6490002 0 255 0
1.4351623 -1.4952084 3.6700001 0 255 0
1.434662 -1.5037642 3.6910002 0 255 0
1.4340625 -1.5123198 3.7120001 0 255 0
1.4379714 -1.5257645 3.7450001 0 255 0
1.4371454 -1.5343202 3.7660003 0 255 0
1.4324275 -1.5388017 3.7770002 0 255 0
1.4321805 -1.5481722 3.8000002 0 255 0
1.4273304 -1.5526538 3.8110001 0 255 0
1.4224286 -1.5571353 3.8220003 0 255 0
1.4178445 -1.5620242 3.8340001 0 255 0
1.4128364 -1.5665059 3.8450003 0 255 0
1.4081414 -1.5713948 3.8570001 0 255 0
1.3990371 -1.5713948 3.8570001 0 255 0
1.3938969 -1.5758764 3.8680003 0 255 0
1.3847665 -1.5758764 3.8680003 0 255 0
1.3799039 -1.5807652 3.8800001 0 255 0
1.3788708 -1.5901358 3.9030001 0 255 0
1.3738691 -1.5950248 3.9150002 0 255 0
1.3688105 -1.5999138 3.9270003 0 255 0
1.3595411 -1.5999138 3.9270003 0 255 0
1.3626498 -1.6145808 3.9630003 0 255 0
1.3577346 -1.619877 3.9760001 0 255 0
1.3564881 -1.6296549 4 0 127 0
1.3514242 -1.6349512 4.013 0 127 0
1.3419516 -1.6349512 4.013 0 127 0
1.3407801 -1.6451366 4.0380001 0 127 0
1.3355343 -1.6504331 4.0510001 0 127 0
1.3298999 -1.6553221 4.0630002 0 127 0
1.3287584 -1.6659148 4.0890002 0 127 0
1.3233001 -1.6712111 4.1020002 0 127 0
1.3222638 -1.6822113 4.1290002 0 127 0
1.3166499 -1.6875077 4.1420002 0 127 0
1.3109746 -1.6928041 4.1550002 0 127 0
1.3055511 -1.6985079 4.1690001 0 127 0
1.3041016 -1.7095081 4.1960001 0 127 0
1.2985152 -1.7152117 4.21 0 127 0
1.2925566 -1.7205082 4.223 0 127 0
1.2868403 -1.7262119 4.237 0 127 0
1.2810581 -1.731916 4.2510004 0 127 0
1.2752097 -1.7376196 4.2650003 0 127 0
1.2692951 -1.7433234 4.2790003 0 127 0
1.2636087 -1.7494346 4.2940001 0 127 0
1.2660251 -1.7669535 4.3370004 0 127 0
1.2644743 -1.7791758 4.3670001 0 127 0
1.2668027 -1.797102 4.4110003 0 127 0
1.2694927 -1.8158431 4.4570003 0 127 0
1.2722483 -1.8349915 4.5040002 0 0 0
1.275062 -1.8545473 4.552 0 0 0
1.2823709 -1.8810292 4.6170001 0 0 0
1.2805604 -1.8944738 4.6500001 0 0 0
1.2788671 -1.9083259 4.684 0 0 0
1.2724122 -1.915252 4.7010002 0 0 0
1.2707063 -1.9295114 4.7360001 0 0 0
1.2640482 -1.9364375 4.7530003 0 0 0
1.262318 -1.9511043 4.789 0 0 0
1.2554547 -1.9580305 4.8060002 1 0 0
1.2536883 -1.9731048 4.8430004 1 0 0
1.2514906 -1.9877716 4.8790002 1 0 0
1.2590349 -2.0183277 4.9540005 1 0 0
1.2619445 -2.0419576 5.0120001 1 0 0
1.2698183 -2.0741432 5.0910001 1 0 0
1.2728722 -2.0989957 5.1520004 1 0 0
1.281266 -2.1332183 5.2360001 2 0 0
1.2846588 -2.1597002 5.3010001 2 0 0
1.2774256 -2.1686635 5.3230004 2 0 0
1.2753161 -2.1865895 5.3670001 2 0 0
1.2680587 -2.19596 5.3900003 2 0 0
1.2658162 -2.2142937 5.4350004 2 0 0
1.2582895 -2.223664 5.4580002 2 0 0
1.2506541 -2.2330348 5.4810004 3 0 0
1.243136 -2.2428126 5.5050001 3 0 0
1.2352812 -2.2521832 5.5280004 3 0 0
1.2275388 -2.261961 5.552 3 0 0
1.2196833 -2.271739 5.5760002 3 0 0
1.2065213 -2.271739 5.5760002 3 0 0
1.2038462 -2.2917023 5.6250005 3 0 0
1.1958599 -2.3018875 5.6500001 3 0 0
1.192988 -2.3222582 5.7000003 4 0 0
1.1847068 -2.3324437 5.7250004 4 0 0
1.1816264 -2.3532219 5.7760005 4 0 0
1.1732498 -2.3638144 5.802 4 0 0
1.1809388 -2.4074078 5.9090004 4 0 0
1.1831853 -2.4408157 5.9910002 4 0 0
1.1801664 -2.4640384 6.0480003 5 0 0
1.1824688 -2.4990759 6.1340003 5 0 0
1.1735115 -2.5108907 6.1630001 5 0 0
1.1646055 -2.5231133 6.1930003 5 0 0
1.1611285 -2.5475581 6.2530003 5 0 0
1.1575518 -2.5724103 6.3140001 6 0 0
1.1656311 -2.6241519 6.4410005 6 0 0
1.1738251 -2.6775231 6.5720005 6 0 0
1.1949719 -2.7622652 6.7800002 7 0 0
1.2375685 -2.8995636 7.1170001 7 0 0
1.2483853 -2.9651573 7.2780004 8 0 0
1.259626 -3.0336027 7.4460006 8 0 0
1.3022674 -3.1806791 7.8070002 9 0 0
1.3492892 -3.3428295 8.2049999 9 0 0
1.3918388 -3.498462 8.5870008 10 0 0
1.4092647 -3.5946112 8.823 11 0 0
1.407637 -3.644316 8.9450006 11 0 0
1.4060532 -3.6956499 9.0710001 11 0 0
1.3945634 -3.722132 9.1360006 12 0 0
1.3827665 -3.7486138 9.2010002 12 0 0
1.3708109 -3.7755029 9.2670002 12 0 0
1.3489363 -3.7755029 9.2670002 12 0 0
1.3366566 -3.8027999 9.3340006 13 0 0
1.3051873 -3.7755029 9.2670002 13 0 0
1.2925912 -3.8027999 9.3340006 13 0 0
1.2705586 -3.8027999 9.3340006 13 0 0
1.248526 -3.8027999 9.3340006 13 0 0
1.2264932 -3.8027999 9.3340006 14 0 0
1.2132354 -3.8305039 9.4020004 14 0 0
1.1910422 -3.8305039 9.4020004 14 0 0
1.1688491 -3.8305039 9.4020004 14 0 0
1.1550711 -3.8586156 9.4710007 15 0 0
1.1327151 -3.8586156 9.4710007 15 0 0
1.118683 -3.887542 9.5420008 15 0 0
1.1125867 -3.945802 9.6850004 16 0 0
1.0979394 -3.9755433 9.7580004 16 0 0
1.0915395 -4.0370626 9.9090004 16 0 0
0 -0 0 0 127 0
0 -0 0 0 127 0
0 -0 0 0 127 0
0 -0 0 0 127 0
0 -0 0 0 127 0
0 -0 0 0 127 0
0 -0 0 0 127 0
0 -0 0 0 127 0
0 -0 0 0 127 0
0 -0 0 0 127 0
0 -0 0 0 127 0
0 -0 0 0 127 0
0 -0 0 0 127 0
0 -0 0 0 127 0
0 -0 0 0 127 0
0 -0 0 0 127 0
0 -0 0 0 127 0
0 -0 0 0 127 0
0 -0 0 0 127 0
0 -0 0 0 127 0
0 -0 0 0 127 0
0 -0 0 0 127 0
0 -0 0 0 127 0
0 -0 0 0 127 0
0 -0 0 0 127 0
0 -0 0 0 127 0
0 -0 0 0 127 0
0 -0 0 0 127 0
0 -0 0 0 127 0
0 -0 0 0 127 0
0 -0 0 0 127 0
0 -0 0 0 127 0
0 -0 0 0 127 0
0 -0 0 0 127 0
0 -0 0 0 127 0
0 -0 0 0 127 0
0 -0 0 0 127 0
0 -0 0 0 127 0
0 -0 0 0 127 0
0 -0 0 0 127 0
0 -0 0 0 127 0
0 -0 0 0 127 0
0 -0 0 0 127 0
0 -0 0 0 127 0
0 -0 0 0 127 0
0 -0 0 0 127 0
0 -0 0 0 127 0
0 -0 0 0 127 0
1.4530542 -0.67325902 1.6430001 4 0 0
1.4527041 -0.67489809 1.6470001 4 0 0
1.4549739 -0.6777665 1.654 4 0 0
1.4580883 -0.6810447 1.6620001 4 0 0
1.4637896 -0.68555224 1.6730001 4 0 0
1.4676938 -0.68924022 1.682 4 0 0
1.4706854 -0.69251841 1.6900001 4 0 0
1.4710355 -0.69456726 1.6950001 4 0 0
1.473093 -0.69743568 1.702 4 0 0
1.4708018 -0.69825524 1.7040001 4 0 0
1.4702227 -0.69989431 1.7080001 4 0 0
1.4704832 -0.70194322 1.7130001 4 0 0
1.469864 -0.70358235 1.7170001 4 0 0
1.4760555 -0.70849961 1.7290001 4 0 0
1.4924066 -0.7183342 1.7530001 4 0 0
1.514587 -0.73103714 1.784 4 0 0
1.5340815 -0.74251086 1.812 4 0 0
1.5737059 -0.7638191 1.8640001 4 0 0
1.594563 -0.77611232 1.8940001 4 0 0
1.6337485 -0.79742062 1.9460001 5 0 0
1.6492474 -0.80725521 1.9700001 5 0 0
1.6671375 -0.81831908 1.9970001 5 0 0
1.6915597 -0.83266115 2.0320001 0 255 0
1.6975546 -0.83798826 2.0450001 0 255 0
1.703488 -0.8433153 2.0580001 0 255 0
1.7011062 -0.84454465 2.0610001 0 255 0
1.6987104 -0.84577399 2.0640001 0 255 0
1.6995829 -0.84864235 2.0710001 0 255 0
1.6971494 -0.8498717 2.0740001 0 255 0
1.6922538 -0.8498717 2.0740001 0 255 0
1.6930531 -0.85274011 2.0810001 0 255 0
1.6905748 -0.85396945 2.0840001 0 255 0
1.6945528 -0.85847694 2.095 0 255 0
1.6976725 -0.86257464 2.105 0 255 0
1.7063742 -0.86954093 2.1220002 0 255 0
1.7125901 -0.8752777 2.1360002 0 255 0
1.7163416 -0.87978518 2.1470001 0 255 0
1.716853 -0.88265359 2.154 0 255 0
1.7205104 -0.8871612 2.1650002 0 255 0
1.7185693 -0.88880026 2.1690001 0 255 0
1.7158192 -0.89002961 2.1720002 0 255 0
1.7138426 -0.89166868 2.1760001 0 255 0
1.7087063 -0.89166868 2.1760001 0 255 0
1.7067015 -0.89330775 2.1800001 0 255 0
1.7038972 -0.89453709 2.1830001 0 255 0
1.6987444 -0.89453709 2.1830001 0 255 0
1.6966947 -0.89617616 2.187 0 255 0
1.6946263 -0.89781535 2.1910002 0 255 0
1.694852 -0.90068376 2.1980002 0 255 0
1.6958134 -0.9039619 2.2060001 0 255 0
1.7021018 -0.91010857 2.2210002 0 255 0
1.7052633 -0.91461605 2.2320001 0 255 0
1.7121811 -0.92117244 2.2480001 0 255 0
1.715986 -0.92608964 2.26 0 255 0
1.7227622 -0.93264604 2.276 0 255 0
1.7234265 -0.93592429 2.2840002 0 255 0
1.7240525 -0.93920243 2.2920001 0 255 0
1.7216418 -0.94084156 2.296 0 255 0
1.716222 -0.94084156 2.296 0 255 0
1.7137831 -0.94248068 2.3000002 0 255 0
1.708354 -0.94248068 2.3000002 0 255 0
1.702925 -0.94248068 2.3000002 0 255 0
1.6974959 -0.94248068 2.3000002 0 255 0
1.6920667 -0.94248068 2.3000002 0 255 0
1.6895709 -0.94411975 2.3040001 0 255 0
1.6841323 -0.94411975 2.3040001 0 255 0
1.6816082 -0.94575888 2.3080001 0 255 0
1.6761603 -0.94575888 2.3080001 0 255 0
1.6707124 -0.94575888 2.3080001 0 255 0
1.6688721 -0.94780779 2.3130002 0 255 0
1.6634123 -0.94780779 2.3130002 0 255 0
1.6608195 -0.94944686 2.3170002 0 255 0
1.6582081 -0.95108593 2.3210001 0 255 0
1.6555778 -0.95272499 2.325 0 255 0
1.6529285 -0.95436406 2.329 0 255 0
1.6509678 -0.95641297 2.3340001 0 255 0
1.6454585 -0.95641297 2.3340001 0 255 0
1.6427597 -0.95805204 2.3380001 0 255 0
1.6372409 -0.95805204 2.3380001 0 255 0
1.6373054 -0.96133029 2.3460002 0 255 0
1.6317677 -0.96133029 2.3460002 0 255 0
1.629696 -0.96337914 2.3510001 0 255 0
1.6241466 -0.96337914 2.3510001 0 255 0
1.624105 -0.9666574 2.3590002 0 255 0
1.6185366 -0.9666574 2.3590002 0 255 0
1.616387 -0.96870619 2.3640001 0 255 0
1.6162579 -0.97198445 2.3720002 0 255 0
1.614054 -0.9740333 2.3770001 0 255 0
1.6111498 -0.97567236 2.381 0 255 0
1.6142955 -0.98099941 2.3940001 0 255 0
1.6146922 -0.98468739 2.4030001 0 255 0
1.6150463 -0.98837543 2.4120002 0 255 0
1.6153578 -0.99206328 2.421 0 255 0
1.6156269 -0.99575132 2.4300001 0 255 0
1.6098909 -0.99575132 2.4300001 0 255 0
1.6074557 -0.99780023 2.4350002 0 255 0
1.6049969 -0.99984902 2.4400001 0 255 0
1.601859 -1.0014881 2.444 0 255 0
1.5993555 -1.0035371 2.4490001 0 255 0
1.5968282 -1.0055859 2.4540002 0 255 0
1.5910357 -1.0055859 2.4540002 0 255 0
1.587827 -1.007225 2.4580002 0 255 0
1.5852429 -1.0092739 2.4630001 0 255 0
1.5826354 -1.0113227 2.4680002 0 255 0
1.5825599 -1.0150107 2.4770002 0 255 0
1.5798957 -1.0170596 2.4820001 0 255 0
1.5829155 -1.0227964 2.4960001 0 255 0
1.5865012 -1.0289431 2.5110002 0 255 0
1.5900159 -1.0350896 2.526 0 255 0
1.59346 -1.0412363 2.5410001 0 255 0
1.596833 -1.047383 2.5560002 0 255 0
1.5970235 -1.0514807 2.5660002 0 255 0
1.5971667 -1.0555784 2.5760002 0 255 0
1.5978802 -1.0600859 2.5870001 0 255 0
1.5917737 -1.0600859 2.5870001 0 255 0
1.5887319 -1.0621347 2.592 0 255 0
1.5856665 -1.0641836 2.5970001 0 255 0
1.5825773 -1.0662326 2.6020002 0 255 0
1.5800705 -1.0686911 2.608 0 255 0
1.576932 -1.07074 2.6130002 0 255 0
1.5737696 -1.0727888 2.618 0 255 0
1.5705838 -1.0748378 2.6230001 0 255 0
1.5709529 -1.0793452 2.6340001 0 255 0
1.5682998 -1.0818039 2.6400001 0 255 0
1.5715352 -1.0883603 2.6560001 0 255 0
1.5682123 -1.0904092 2.661 0 255 0
1.5683879 -1.0949167 2.6720002 0 255 0
1.5655884 -1.0973754 2.6780002 0 255 0
1.5656718 -1.1018828 2.6890001 0 255 0
1.5628039 -1.1043415 2.6950002 0 255 0
1.55933 -1.1063904 2.7 0 255 0
1.5598588 -1.1113076 2.7120001 0 255 0
1.5568941 -1.1137663 2.7180002 0 255 0
1.5504782 -1.1137663 2.7180002 0 255 0
1.5503113 -1.1182737 2.7290001 0 255 0
1.5472641 -1.1207324 2.7350001 0 255 0
1.5441884 -1.1231911 2.7410002 0 255 0
1.5377184 -1.1231911 2.7410002 0 255 0
1.5346003 -1.1256498 2.7470002 0 255 0
1.5308974 -1.1276985 2.7520001 0 255 0
1.5277249 -1.1301572 2.7580001 0 255 0
1.5245241 -1.1326159 2.7640002 0 255 0
1.5179998 -1.1326159 2.7640002 0 255 0
1.5114754 -1.1326159 2.7640002 0 255 0
1.5082181 -1.1350746 2.7700002 0 255 0
1.5016795 -1.1350746 2.7700002 0 255 0
1.4983796 -1.1375332 2.776 0 255 0
1.4950514 -1.1399918 2.7820001 0 255 0
1.4916946 -1.1424505 2.7880001 0 255 0
1.4851136 -1.1424505 2.7880001 0 255 0
1.4817146 -1.1449091 2.7940001 0 255 0
1.4751195 -1.1449091 2.7940001 0 255 0
1.471678 -1.1473678 2.8000002 0 255 0
1.4682081 -1.1498264 2.8060002 0 255 0
1.4647099 -1.152285 2.812 0 255 0
1.461702 -1.1551535 2.8190002 0 255 0
1.4581444 -1.1576121 2.825 0 255 0
1.454559 -1.1600708 2.8310001 0 255 0
1.4575938 -1.1678565 2.8500001 0 255 0
1.4569755 -1.1727738 2.8620002 0 255 0
1.4603541 -1.1809692 2.8820002 0 255 0
1.4601079 -1.1862963 2.8950002 0 255 0
1.4628122 -1.194082 2.914 0 255 0
1.4659264 -1.2022775 2.9340003 0 255 0
1.4689463 -1.2104731 2.9540002 0 255 0
1.4689022 -1.2162099 2.9680002 0 255 0
1.4687921 -1.2219467 2.9820001 0 255 0
1.4686158 -1.2276834 2.9960001 0 255 0
1.4717884 -1.2362888 3.0170002 0 255 0
1.4782599 -1.2477624 3.0450001 0 255 0
1.4923292 -1.2657925 3.0890002 0 255 0
1.4994602 -1.2780857 3.1190002 0 255 0
1.5141039 -1.2969353 3.1650002 0 255 0
1.5175816 -1.3063601 3.1880002 0 255 0
1.5176352 -1.3129166 3.2040002 0 255 0
1.5176132 -1.319473 3.2200003 0 255 0
1.5100125 -1.319473 3.2200003 0 255 0
1.5098771 -1.3260293 3.2360001 0 255 0
1.5064167 -1.3297173 3.2450001 0 255 0
1.5024519 -1.3329955 3.2530003 0 255 0
1.506261 -1.3432398 3.2780001 0 255 0
1.5058376 -1.3497962 3.2940001 0 255 0
1.5098866 -1.3604504 3.3200002 0 255 0
1.5138129 -1.3711045 3.3460002 0 255 0
1.5176165 -1.3817587 3.3720002 0 255 0
1.521745 -1.3928225 3.3990002 0 255 0
1.529754 -1.4075744 3.4350002 0 255 0
1.5256327 -1.4112624 3.4440002 0 255 0
1.5258751 -1.4190481 3.4630001 0 255 0
1.5216451 -1.422736 3.4720001 0 255 0
1.5173726 -1.426424 3.4810002 0 255 0
1.5134913 -1.4305217 3.4910002 0 255 0
1.5052508 -1.4305217 3.4910002 0 255 0
1.5008699 -1.4342097 3.5000002 0 255 0
1.4926082 -1.4342097 3.5000002 0 255 0
1.4885876 -1.4383075 3.5100002 0 255 0
1.4840978 -1.4419954 3.5190001 0 255 0
1.4799852 -1.4460932 3.5290003 0 255 0
1.4716551 -1.4460932 3.5290003 0 255 0
1.4674716 -1.4501909 3.5390003 0 255 0
1.4669514 -1.4579766 3.5580001 0 255 0
1.4626522 -1.4620743 3.5680001 0 255 0
1.4583058 -1.4661721 3.5780001 0 255 0
1.4539123 -1.4702698 3.5880001 0 255 0
1.4535 -1.4784653 3.6080003 0 255 0
1.4489884 -1.4825631 3.6180003 0 255 0
1.448809 -1.4911684 3.6390002 0 255 0
1.4402193 -1.4911684 3.6390002 0 255 0
1.4355636 -1.4952661 3.6490002 0 255 0
1.4269502 -1.4952661 3.6490002 0 255 0
1.4303863 -1.507969 3.6800001 0 255 0
1.4259496 -1.5124766 3.6910002 0 255 0
1.4295241 -1.5255893 3.7230003 0 255 0
1.4291314 -1.5346044 3.7450001 0 255 0
1.4282558 -1.5432097 3.7660003 0 255 0
1.4280348 -1.5526345 3.7890003 0 255 0
1.4232106 -1.557142 3.8000002 0 255 0
1.4183347 -1.5616494 3.8110001 0 255 0
1.413407 -1.566157 3.8220003 0 255 0
1.4087944 -1.5710742 3.8340001 0 255 0
1.4037604 -1.5755818 3.8450003 0 255 0
1.3990371 -1.5804991 3.8570001 0 255 0
1.3899328 -1.5804991 3.8570001 0 255 0
1.3847665 -1.5850067 3.8680003 0 255 0
1.3756362 -1.5850067 3.8680003 0 255 0
1.3749847 -1.5948412 3.8920002 0 255 0
1.369658 -1.5993487 3.9030001 0 255 0
1.3646277 -1.604266 3.9150002 0 255 0
1.3595411 -1.6091833 3.9270003 0 255 0
1.3543975 -1.6141006 3.9390001 0 255 0
1.3532953 -1.6239352 3.9630003 0 255 0
